# .PCD v0.7 - Point Cloud Data file format
VERSION 0.7
FIELDS x y z h s v
SIZE 4 4 4 4 4 4
TYPE F F F F F F
COUNT 1 1 1 1 1 1
WIDTH 235
HEIGHT 1
VIEWPOINT 0 0 0 1 0 0 0
POINTS 235
DATA ascii
-0.038289525 0.32795811 1.748 0 0 0.99607843
-0.041833337 0.33299333 1.7570001 0 0 0.99607843
-0.038289525 0.33128762 1.748 0 0 0.99607843
-0.041833337 0.33634001 1.7570001 0 0 0.99607843
-0.038289525 0.33461714 1.748 0 0 0.99607843
-0.058266666 0.34127617 1.748 40 0.012048192 0.97647059
-0.054654285 0.33951905 1.7390001 40 0.012 0.98039216
-0.05134191 0.33951905 1.7390001 0 0 0.99215686
-0.057966668 0.34283143 1.7390001 0 0 0.99607843
-0.054654285 0.34283143 1.7390001 0 0 0.99607843
-0.05134191 0.34283143 1.7390001 0 0 0.99607843
-0.054402858 0.34455144 1.7310001 0 0 0.99607843
-0.051105715 0.34455144 1.7310001 0 0 0.99607843
-0.047808573 0.34455144 1.7310001 0 0 0.99607843
-0.050840002 0.34604004 1.7220001 0 0 0.99607843
-0.047560003 0.34604004 1.7220001 0 0 0.99607843
-0.044048574 0.34423146 1.7130001 0 0 0.99607843
-0.034260001 0.34423146 1.7130001 0 0 0.99607843
-0.031160003 0.34604004 1.7220001 0 0 0.99607843
-0.054120004 0.34931999 1.7220001 0 0 0.99607843
-0.050574284 0.3474943 1.7130001 0 0 0.99607843
-0.047311429 0.3474943 1.7130001 0 0 0.99607843
-0.043842856 0.34587142 1.705 0 0 0.99607843
-0.040595237 0.34587142 1.705 0 0 0.99607843
-0.037347618 0.34587142 1.705 0 0 0.99607843
-0.0341 0.34587142 1.705 0 0 0.99607843
-0.030997144 0.3474943 1.7130001 0 0 0.99607843
-0.02447143 0.3474943 1.7130001 0 0 0.99607843
-0.057400003 0.35260004 1.7220001 0 0 0.99607843
-0.053837147 0.35075715 1.7130001 0 0 0.99607843
-0.050574284 0.35075715 1.7130001 0 0 0.99607843
-0.047090475 0.34911907 1.705 0 0 0.99607843
-0.043842856 0.34911907 1.705 0 0 0.99607843
-0.040595237 0.34911907 1.705 0 0 0.99607843
-0.037347618 0.34911907 1.705 0 0 0.99607843
-0.053837147 0.35402 1.7130001 0 0 0.99607843
-0.050338093 0.35236669 1.705 0 0 0.99607843
-0.047090475 0.35236669 1.705 0 0 0.99607843
-0.043611433 0.35050666 1.6960001 0 0 0.99607843
-0.040380955 0.35050666 1.6960001 0 0 0.99607843
-0.060680002 0.35916004 1.7220001 42.857143 0.027450981 1
-0.057100002 0.35728285 1.7130001 0 0 0.99607843
-0.053837147 0.35728285 1.7130001 0 0 0.99607843
-0.050338093 0.3556143 1.705 0 0 0.99607843
-0.047090475 0.3556143 1.705 0 0 0.99607843
-0.060680002 0.36244002 1.7220001 0 0.011764706 1
-0.057100002 0.36054569 1.7130001 0 0 0.99607843
-0.053585716 0.35886192 1.705 0 0 0.99607843
-0.050338093 0.35886192 1.705 0 0 0.99607843
-0.047090475 0.35886192 1.705 0 0 0.99607843
-0.060362857 0.3638086 1.7130001 320 0.011764706 1
-0.057100002 0.3638086 1.7130001 0 0 0.99607843
-0.053585716 0.36210951 1.705 0 0 0.99607843
-0.050338093 0.36210951 1.705 0 0 0.99607843
-0.047090475 0.36210951 1.705 0 0 0.99607843
-0.060362857 0.36707145 1.7130001 315 0.015686275 1
-0.057100002 0.36707145 1.7130001 0 0 0.99607843
-0.053585716 0.36535713 1.705 0 0 0.99607843
-0.050338093 0.36535713 1.705 0 0 0.99607843
-0.047090475 0.36535713 1.705 0 0 0.99607843
-0.060362857 0.3703343 1.7130001 0 0.011764706 1
-0.057100002 0.3703343 1.7130001 0 0 0.99607843
-0.053585716 0.36860475 1.705 0 0 0.99607843
-0.050338093 0.36860475 1.705 0 0 0.99607843
-0.047090475 0.36860475 1.705 0 0 0.99607843
-0.060362857 0.37359715 1.7130001 320 0.011764706 1
-0.057100002 0.37359715 1.7130001 0 0 0.99607843
-0.053585716 0.3718524 1.705 0 0 0.99607843
-0.050338093 0.3718524 1.705 0 0 0.99607843
-0.047090475 0.3718524 1.705 0 0 0.99607843
-0.063625716 0.37685999 1.7130001 25.714287 0.02991453 0.91764706
-0.060362857 0.37685999 1.7130001 36 0.019607844 1
-0.057100002 0.37685999 1.7130001 0 0 0.99607843
-0.053585716 0.37510002 1.705 0 0 0.99607843
-0.050338093 0.37510002 1.705 0 0 0.99607843
-0.047090475 0.37510002 1.705 0 0 0.99607843
-0.063328572 0.37834764 1.705 13.333333 0.038135592 0.9254902
-0.060080953 0.37834764 1.705 24 0.019607844 1
-0.057100002 0.38012287 1.7130001 0 0 0.99607843
-0.053585716 0.37834764 1.705 0 0 0.99607843
-0.050338093 0.37834764 1.705 0 0 0.99607843
-0.047090475 0.37834764 1.705 0 0 0.99607843
-0.063328572 0.38159525 1.705 40 0.064102568 0.91764706
-0.060080953 0.38159525 1.705 54.545456 0.043137256 1
-0.057100002 0.38338572 1.7130001 0 0 0.99607843
-0.053837147 0.38338572 1.7130001 0 0 0.99607843
-0.050338093 0.38159525 1.705 0 0 0.99607843
-0.047090475 0.38159525 1.705 0 0 0.99607843
0.07058572 0.36861429 1.6470001 0 0 0.99607843
-0.063328572 0.38484287 1.705 32.307693 0.056277055 0.90588236
-0.060362857 0.3866486 1.7130001 46.666668 0.035294119 1
-0.057100002 0.3866486 1.7130001 0 0 0.99607843
-0.053837147 0.3866486 1.7130001 0 0 0.99607843
-0.050338093 0.38484287 1.705 0 0 0.99607843
-0.047090475 0.38484287 1.705 0 0 0.99607843
0.066834286 0.36836573 1.6320001 0 0 0.99607843
0.069942862 0.36836573 1.6320001 0 0 0.99607843
0.07305143 0.36836573 1.6320001 0 0 0.99607843
0.076159999 0.36836573 1.6320001 0 0 0.99607843
0.079608575 0.36994573 1.6390001 0 0 0.99607843
0.08273048 0.36994573 1.6390001 0 0 0.99607843
0.085066676 0.36656001 1.6240001 0 0 0.99607843
0.088160001 0.36656001 1.6240001 0 0 0.99607843
0.091702856 0.36836573 1.6320001 0 0 0.99607843
0.094346665 0.36656001 1.6240001 0 0 0.99607843
0.097440004 0.36656001 1.6240001 0 0 0.99607843
0.10053334 0.36656001 1.6240001 0 0 0.99607843
0.10362667 0.36656001 1.6240001 0 0 0.99607843
0.10672001 0.36656001 1.6240001 240 0.0080971662 0.96862745
-0.063328572 0.38809046 1.705 32.307693 0.055319149 0.92156863
-0.060362857 0.38991144 1.7130001 46.666668 0.035294119 1
-0.057400003 0.39196002 1.7220001 0 0 0.99607843
-0.053837147 0.38991144 1.7130001 0 0 0.99607843
-0.050574284 0.38991144 1.7130001 0 0 0.99607843
-0.047090475 0.38809046 1.705 0 0 0.99607843
0.066179045 0.36783236 1.6160001 0 0 0.99607843
0.06925714 0.36783236 1.6160001 0 0 0.99607843
0.072335243 0.36783236 1.6160001 0 0 0.99607843
0.075413339 0.36783236 1.6160001 0 0 0.99607843
0.078491427 0.36783236 1.6160001 0 0 0.99607843
0.081569523 0.36783236 1.6160001 0 0 0.99607843
0.084647626 0.36783236 1.6160001 0 0 0.99607843
0.087725714 0.36783236 1.6160001 0 0 0.99607843
0.090803809 0.36783236 1.6160001 0 0 0.99607843
0.096960008 0.36783236 1.6160001 0 0 0.99607843
0.1000381 0.36783236 1.6160001 0 0 0.99607843
0.10311619 0.36783236 1.6160001 0 0 0.99607843
-0.063960001 0.39524001 1.7220001 33.333336 0.03846154 0.91764706
-0.060680002 0.39524001 1.7220001 42.857143 0.027450981 1
-0.057400003 0.39524001 1.7220001 0 0 0.99607843
-0.050574284 0.39317429 1.7130001 0 0 0.99607843
0.066179045 0.3709105 1.6160001 0 0 0.99607843
0.06925714 0.3709105 1.6160001 0 0 0.99607843
0.072335243 0.3709105 1.6160001 0 0 0.99607843
0.075413339 0.3709105 1.6160001 0 0 0.99607843
0.078491427 0.3709105 1.6160001 0 0 0.99607843
0.081216194 0.36930382 1.6090001 0 0 0.99607843
0.084280953 0.36930382 1.6090001 0 0 0.99607843
0.087345719 0.36930382 1.6090001 0 0 0.99607843
0.090410486 0.36930382 1.6090001 0 0 0.99607843
0.093475237 0.36930382 1.6090001 0 0 0.99607843
0.096540004 0.36930382 1.6090001 0 0 0.99607843
0.099604771 0.36930382 1.6090001 0 0 0.99607843
-0.063960001 0.39852005 1.7220001 33.333336 0.038297873 0.92156863
-0.060680002 0.39852005 1.7220001 42.857143 0.027450981 1
0.075086668 0.3723686 1.6090001 0 0 0.99607843
0.078151435 0.3723686 1.6090001 0 0 0.99607843
0.081216194 0.3723686 1.6090001 0 0 0.99607843
0.084280953 0.3723686 1.6090001 0 0 0.99607843
0.087345719 0.3723686 1.6090001 0 0 0.99607843
0.090410486 0.3723686 1.6090001 0 0 0.99607843
0.093475237 0.3723686 1.6090001 0 0 0.99607843
0.081216194 0.37543336 1.6090001 0 0 0.99607843
0.084280953 0.37543336 1.6090001 0 0 0.99607843
0.087345719 0.37543336 1.6090001 0 0 0.99607843
0.089960955 0.37356669 1.6010001 0 0 0.99607843
0.054400001 0.39634287 1.6320001 34.054054 0.14509805 1
0.11435714 0.3888143 1.6010001 22.105263 0.083700441 0.89019608
0.11740667 0.3888143 1.6010001 28.125 0.13502109 0.92941177
0.057226669 0.40058669 1.6240001 0 0 0.99607843
0.057226669 0.40368 1.6240001 0 0 0.99607843
0.057226669 0.40677336 1.6240001 0 0 0.99607843
0.17619905 0.38297811 1.529 40 0.012145749 0.96862745
0.21988477 0.38297811 1.529 0 0 0.99607843
0.23352668 0.38147527 1.5230001 39.512196 0.1943128 0.82745099
0.17619905 0.38589048 1.529 330 0.0081967209 0.95686275
0.20132476 0.38942382 1.5430001 0 0 0.99607843
0.20426382 0.38942382 1.5430001 0 0 0.99607843
0.20626286 0.38765714 1.536 0 0 0.99607843
0.21114762 0.38589048 1.529 0 0 0.99607843
0.21405999 0.38589048 1.529 0 0 0.99607843
0.21612097 0.38437623 1.5230001 0 0 0.99607843
0.21902192 0.38437623 1.5230001 0 0 0.99607843
0.22090286 0.38260955 1.516 0 0 0.99607843
0.22379048 0.38260955 1.516 0 0 0.99215686
0.22772478 0.38437623 1.5230001 33.333336 0.037656903 0.93725491
0.17619905 0.38880286 1.529 60 0.0080645159 0.97254902
0.17911142 0.38880286 1.529 60 0.0078740157 0.99607843
0.20551144 0.38371715 1.5090001 0 0 0.99607843
0.20838572 0.38371715 1.5090001 0 0 0.99607843
0.21126001 0.38371715 1.5090001 0 0 0.99607843
0.21413429 0.38371715 1.5090001 0 0 0.99607843
0.21700858 0.38371715 1.5090001 0 0 0.95686275
0.17550763 0.39017814 1.5230001 0 0 0.97647059
0.17840858 0.39017814 1.5230001 0 0 0.99607843
0.18130954 0.39017814 1.5230001 0 0 0.99607843
0.18421049 0.39017814 1.5230001 0 0 0.99607843
0.18711144 0.39017814 1.5230001 0 0 0.99607843
0.18913905 0.38838476 1.516 0 0 0.99607843
0.19202667 0.38838476 1.516 0 0 0.99607843
0.1978019 0.38838476 1.516 0 0 0.99607843
0.20068952 0.38838476 1.516 0 0 0.99607843
0.20263715 0.38659143 1.5090001 0 0 0.99607843
0.20551144 0.38659143 1.5090001 0 0 0.99607843
0.20838572 0.38659143 1.5090001 0 0 0.99607843
0.21042001 0.38505429 1.503 0 0 0.99607843
0.21328285 0.38505429 1.503 0 0 0.99607843
0.17550763 0.39307907 1.5230001 330 0.0080321282 0.97647059
0.17840858 0.39307907 1.5230001 330 0.0078431377 1
0.18130954 0.39307907 1.5230001 0 0 0.99607843
0.18421049 0.39307907 1.5230001 0 0 0.99607843
0.18625143 0.39127237 1.516 0 0 0.99607843
0.18913905 0.39127237 1.516 0 0 0.99607843
0.19202667 0.39127237 1.516 0 0 0.99607843
0.1940143 0.38946575 1.5090001 0 0 0.99607843
0.20755714 0.38791716 1.503 0 0 0.99607843
0.21328285 0.38791716 1.503 0 0 0.99607843
0.17550763 0.39598003 1.5230001 330 0.0080645159 0.97254902
0.17840858 0.39598003 1.5230001 330 0.0078431377 1
0.18130954 0.39598003 1.5230001 0 0 0.99607843
0.18421049 0.39598003 1.5230001 0 0 0.99607843
0.17260668 0.39888099 1.5230001 35.121948 0.16205534 0.99215686
0.17550763 0.39888099 1.5230001 330 0.0080321282 0.97647059
0.17840858 0.39888099 1.5230001 330 0.0078431377 1
0.18130954 0.39888099 1.5230001 0 0 0.99607843
0.17550763 0.40178195 1.5230001 330 0.0080321282 0.97647059
0.17840858 0.40178195 1.5230001 330 0.0078431377 1
0.18130954 0.40178195 1.5230001 0 0 0.99607843
0.17260668 0.40468287 1.5230001 37.959183 0.2 0.96078432
0.17550763 0.40468287 1.5230001 0 0 0.98039216
0.17840858 0.40468287 1.5230001 0 0 0.99607843
0.18130954 0.40468287 1.5230001 0 0 0.99607843
0.17550763 0.40758383 1.5230001 0 0 0.98431373
0.17840858 0.40758383 1.5230001 0 0 0.99607843
0.21988288 0.40383717 1.5090001 13.333333 0.037974682 0.92941177
0.17550763 0.41048479 1.5230001 60 0.0080000004 0.98039216
0.22275715 0.40671146 1.5090001 13.333333 0.040358745 0.87450981
0.22563143 0.40671146 1.5090001 43.636364 0.10045662 0.85882354
0.17619905 0.4150143 1.529 0 0 0.97647059
0.22275715 0.40958574 1.5090001 27.272728 0.049773756 0.86666667
0.22563143 0.40958574 1.5090001 36.666668 0.082568809 0.85490197
0.17619905 0.41792667 1.529 0 0 0.99607843
0.17911142 0.41792667 1.529 0 0 0.99607843
0.22275715 0.41246 1.5090001 27.272728 0.049773756 0.86666667
0.22563143 0.41246 1.5090001 43.200001 0.1146789 0.85490197
