# .PCD v0.7 - Point Cloud Data file format
VERSION 0.7
FIELDS x y z h s v
SIZE 4 4 4 4 4 4
TYPE F F F F F F
COUNT 1 1 1 1 1 1
WIDTH 952
HEIGHT 1
VIEWPOINT 0 0 0 1 0 0 0
POINTS 952
DATA ascii
-0.061596192 0.34460571 1.748 60 0.17647059 1
-0.031630479 0.34460571 1.748 0 0 0.99607843
-0.028300952 0.34460571 1.748 0 0 0.99607843
-0.024971429 0.34460571 1.748 0 0 0.99607843
-0.021530475 0.34283143 1.7390001 0 0 0.99607843
-0.018218096 0.34283143 1.7390001 0 0 0.99607843
-0.014905715 0.34283143 1.7390001 0 0 0.99607843
-0.01154 0.34125429 1.7310001 60 0.0078740157 0.99607843
-0.0082428576 0.34125429 1.7310001 60 0.0093457941 0.8392157
0.19144762 0.34460571 1.748 0 0 0.99607843
0.19477715 0.34460571 1.748 0 0 0.99607843
0.19708668 0.34283143 1.7390001 0 0 0.99607843
0.20039906 0.34283143 1.7390001 60 0.0079681277 0.98431373
0.20371144 0.34283143 1.7390001 60 0.0088105723 0.89019608
0.20702383 0.34283143 1.7390001 37.5 0.10300429 0.9137255
-0.064591438 0.34614381 1.7390001 39.428574 0.15625 0.87843138
-0.061279051 0.34614381 1.7390001 49.285717 0.10980392 1
-0.057966668 0.34614381 1.7390001 0 0 0.99607843
-0.024842858 0.34614381 1.7390001 0 0 0.99607843
-0.021530475 0.34614381 1.7390001 0 0 0.99607843
-0.018218096 0.34614381 1.7390001 0 0 0.99607843
-0.014837143 0.34455144 1.7310001 0 0 0.99607843
-0.01154 0.34455144 1.7310001 330 0.0080971662 0.96862745
-0.0082 0.34276 1.7220001 330 0.0095238099 0.82352942
-0.0049200002 0.34276 1.7220001 27.692308 0.18932039 0.80784315
0.15402572 0.34614381 1.7390001 13.333333 0.043902438 0.80392158
0.15661429 0.34455144 1.7310001 24 0.019607844 1
0.15991144 0.34455144 1.7310001 0 0 0.99607843
0.19046192 0.34614381 1.7390001 0 0 0.99607843
0.1937743 0.34614381 1.7390001 0 0 0.99607843
0.19618002 0.34455144 1.7310001 0 0 0.99607843
0.19947715 0.34455144 1.7310001 60 0.0080000004 0.98039216
0.20277429 0.34455144 1.7310001 60 0.0086956518 0.90196079
0.20607144 0.34455144 1.7310001 35.454544 0.096069872 0.89803922
-0.064591438 0.34945619 1.7390001 39.310345 0.12719299 0.89411765
-0.060997147 0.34784859 1.7310001 43.846153 0.10196079 1
-0.057700001 0.34784859 1.7310001 0 0 0.99607843
-0.054402858 0.34784859 1.7310001 0 0 0.99607843
-0.021431429 0.34784859 1.7310001 0 0 0.98431373
-0.018134287 0.34784859 1.7310001 40 0.012244898 0.96078432
-0.014760001 0.34604004 1.7220001 40 0.012711864 0.9254902
-0.011480001 0.34604004 1.7220001 13.333333 0.037656903 0.93725491
-0.0082 0.34604004 1.7220001 13.333333 0.042452831 0.83137256
-0.0049200002 0.34604004 1.7220001 20 0.17475729 0.80784315
0.15331714 0.34784859 1.7310001 353.33334 0.04265403 0.82745099
0.15580001 0.34604004 1.7220001 345 0.015686275 1
0.15908001 0.34604004 1.7220001 0 0 0.99607843
0.16396287 0.34945619 1.7390001 0 0 0.99607843
0.16727525 0.34945619 1.7390001 0 0 0.99607843
0.17058761 0.34945619 1.7390001 0 0 0.99607843
0.17389999 0.34945619 1.7390001 0 0 0.99607843
0.17721239 0.34945619 1.7390001 0 0 0.99607843
0.18052477 0.34945619 1.7390001 0 0 0.99607843
0.18383715 0.34945619 1.7390001 0 0 0.99607843
0.18714952 0.34945619 1.7390001 0 0 0.99607843
0.19046192 0.34945619 1.7390001 0 0 0.99607843
0.1937743 0.34945619 1.7390001 0 0 0.99607843
0.19618002 0.34784859 1.7310001 0 0 0.97647059
0.19947715 0.34784859 1.7310001 0 0 0.97254902
0.20277429 0.34784859 1.7310001 0 0 0.91764706
0.20607144 0.34784859 1.7310001 36 0.10869565 0.90196079
0.20936857 0.34784859 1.7310001 36 0.1201923 0.81568629
-0.064591438 0.35276857 1.7390001 30 0.087336242 0.89803922
-0.060997147 0.35114571 1.7310001 35.294121 0.06666667 1
-0.057700001 0.35114571 1.7310001 0 0 0.99607843
-0.027734285 0.3474943 1.7130001 0 0 0.99607843
-0.011480001 0.34931999 1.7220001 12 0.041841004 0.93725491
-0.0082 0.34931999 1.7220001 12 0.046728972 0.8392157
-0.0048942855 0.3474943 1.7130001 17.64706 0.16585366 0.80392158
0.15331714 0.35114571 1.7310001 12 0.046296295 0.84705883
0.15580001 0.34931999 1.7220001 24 0.019607844 1
0.15908001 0.34931999 1.7220001 0 0 0.99607843
0.16320857 0.35114571 1.7310001 0 0 0.99607843
0.16650572 0.35114571 1.7310001 0 0 0.99607843
0.16980286 0.35114571 1.7310001 0 0 0.99607843
0.17310001 0.35114571 1.7310001 0 0 0.99607843
0.17639714 0.35114571 1.7310001 0 0 0.99607843
0.17969428 0.35114571 1.7310001 0 0 0.99607843
0.18299143 0.35114571 1.7310001 0 0 0.99607843
0.18628858 0.35114571 1.7310001 0 0 0.99607843
0.18958572 0.35114571 1.7310001 0 0 0.99607843
0.19288287 0.35114571 1.7310001 0 0 0.99607843
0.19618002 0.35114571 1.7310001 0 0 0.99607843
0.19947715 0.35114571 1.7310001 330 0.0080321282 0.97647059
0.20277429 0.35114571 1.7310001 330 0.008510638 0.92156863
0.20607144 0.35114571 1.7310001 31.304348 0.1008772 0.89411765
0.20936857 0.35114571 1.7310001 31.304348 0.1127451 0.80000001
-0.064294286 0.35444286 1.7310001 18.461538 0.05652174 0.90196079
-0.060997147 0.35444286 1.7310001 21.818182 0.043137256 1
-0.0341 0.34911907 1.705 0 0 0.99607843
-0.030852381 0.34911907 1.705 0 0 0.99607843
-0.027734285 0.35075715 1.7130001 0 0 0.99607843
-0.02447143 0.35075715 1.7130001 0 0 0.99607843
-0.021208571 0.35075715 1.7130001 0 0 0.96862745
-0.014682857 0.35075715 1.7130001 330 0.0082987556 0.94509804
-0.01142 0.35075715 1.7130001 354 0.042016808 0.93333334
-0.0081571434 0.35075715 1.7130001 354 0.046296295 0.84705883
0.15331714 0.35444286 1.7310001 12 0.046296295 0.84705883
0.15580001 0.35260004 1.7220001 24 0.019607844 1
0.15908001 0.35260004 1.7220001 0 0 0.99607843
0.16320857 0.35444286 1.7310001 0 0 0.99607843
0.16650572 0.35444286 1.7310001 0 0 0.99607843
0.16980286 0.35444286 1.7310001 0 0 0.99607843
0.17310001 0.35444286 1.7310001 0 0 0.99607843
0.17639714 0.35444286 1.7310001 0 0 0.99607843
0.17969428 0.35444286 1.7310001 0 0 0.99607843
0.18299143 0.35444286 1.7310001 0 0 0.99607843
0.18532 0.35260004 1.7220001 0 0 0.99607843
0.18860002 0.35260004 1.7220001 0 0 0.99607843
0.19288287 0.35444286 1.7310001 0 0 0.99607843
0.19618002 0.35444286 1.7310001 0 0 0.99607843
0.19947715 0.35444286 1.7310001 330 0.0080321282 0.97647059
-0.064294286 0.35774001 1.7310001 20 0.052173913 0.90196079
-0.060997147 0.35774001 1.7310001 30 0.031372551 1
-0.057400003 0.35587999 1.7220001 0 0 0.99607843
-0.03715048 0.35050666 1.6960001 0 0 0.99607843
-0.0341 0.35236669 1.705 0 0 0.99607843
-0.030852381 0.35236669 1.705 0 0 0.99607843
-0.027604762 0.35236669 1.705 0 0 0.99607843
-0.024357144 0.35236669 1.705 0 0 0.99607843
-0.021109525 0.35236669 1.705 0 0 0.99607843
-0.017945714 0.35402 1.7130001 0 0 0.98823529
-0.014682857 0.35402 1.7130001 0 0 0.95294118
-0.011366667 0.35236669 1.705 5.4545455 0.046808511 0.92156863
-0.0081190476 0.35236669 1.705 5.4545455 0.051401868 0.8392157
0.15331714 0.35774001 1.7310001 20 0.055555556 0.84705883
0.15580001 0.35587999 1.7220001 34.285717 0.027450981 1
0.15908001 0.35587999 1.7220001 0 0 0.99607843
0.16320857 0.35774001 1.7310001 0 0 0.99607843
0.16650572 0.35774001 1.7310001 0 0 0.99607843
0.16980286 0.35774001 1.7310001 0 0 0.99607843
0.17310001 0.35774001 1.7310001 0 0 0.99607843
0.18299143 0.35774001 1.7310001 0 0 0.99607843
0.18532 0.35587999 1.7220001 0 0 0.99607843
0.18860002 0.35587999 1.7220001 0 0 0.99607843
0.19188002 0.35587999 1.7220001 0 0 0.99607843
-0.064294286 0.36103716 1.7310001 27.272728 0.048458152 0.89019608
-0.043611433 0.35373715 1.6960001 0 0 0.99607843
-0.040380955 0.35373715 1.6960001 0 0 0.99607843
-0.03715048 0.35373715 1.6960001 0 0 0.99607843
-0.0341 0.3556143 1.705 0 0 0.99607843
-0.030852381 0.3556143 1.705 0 0 0.99607843
-0.027604762 0.3556143 1.705 0 0 0.99607843
-0.024357144 0.3556143 1.705 0 0 0.99607843
-0.021109525 0.3556143 1.705 0 0 0.99607843
-0.017861906 0.3556143 1.705 48 0.02 0.98039216
-0.014614286 0.3556143 1.705 48 0.020576132 0.95294118
-0.011366667 0.3556143 1.705 12 0.042016808 0.93333334
-0.0081190476 0.3556143 1.705 12 0.047393367 0.82745099
0.15331714 0.36103716 1.7310001 20 0.055555556 0.84705883
0.15661429 0.36103716 1.7310001 34.285717 0.027450981 1
0.15991144 0.36103716 1.7310001 0 0 0.99607843
0.16320857 0.36103716 1.7310001 0 0 0.99607843
0.16650572 0.36103716 1.7310001 0 0 0.99607843
0.18860002 0.35916004 1.7220001 0 0 0.99607843
0.19188002 0.35916004 1.7220001 0 0 0.99607843
-0.064294286 0.36433432 1.7310001 0 0.030973451 0.88627452
-0.043611433 0.35696763 1.6960001 0 0 0.99607843
-0.040380955 0.35696763 1.6960001 0 0 0.99607843
-0.03715048 0.35696763 1.6960001 0 0 0.99607843
-0.0341 0.35886192 1.705 0 0 0.99607843
-0.030852381 0.35886192 1.705 0 0 0.99607843
-0.027604762 0.35886192 1.705 0 0 0.99607843
-0.024228573 0.35696763 1.6960001 0 0 0.99607843
-0.020998096 0.35696763 1.6960001 0 0 0.99215686
-0.017861906 0.35886192 1.705 60 0.0080645159 0.97254902
-0.014614286 0.35886192 1.705 60 0.0081967209 0.95686275
-0.011366667 0.35886192 1.705 27.272728 0.045833334 0.94117647
-0.0081190476 0.35886192 1.705 27.272728 0.051886793 0.83137256
0.099780001 0.3500219 1.6630001 0 0 0.99607843
0.15402572 0.36601812 1.7390001 342.85715 0.032258064 0.8509804
0.1573381 0.36601812 1.7390001 320 0.011764706 1
0.15991144 0.36433432 1.7310001 0 0 0.99607843
0.16320857 0.36433432 1.7310001 0 0 0.99607843
0.16650572 0.36433432 1.7310001 0 0 0.99607843
-0.064294286 0.36763144 1.7310001 342.85715 0.03125 0.87843138
-0.043611433 0.36019811 1.6960001 0 0 0.99607843
-0.040380955 0.36019811 1.6960001 0 0 0.99607843
-0.03715048 0.36019811 1.6960001 0 0 0.99607843
-0.0341 0.36210951 1.705 0 0 0.99607843
-0.030852381 0.36210951 1.705 0 0 0.99607843
-0.027604762 0.36210951 1.705 0 0 0.99607843
-0.024228573 0.36019811 1.6960001 0 0 0.99607843
-0.020998096 0.36019811 1.6960001 0 0 0.98823529
-0.017861906 0.36210951 1.705 0 0 0.98431373
-0.014614286 0.36210951 1.705 0 0 0.95686275
-0.011366667 0.36210951 1.705 30 0.058577407 0.93725491
-0.0081190476 0.36210951 1.705 30 0.065116279 0.84313726
0.099780001 0.35318956 1.6630001 0 0 0.99607843
0.10294763 0.35318956 1.6630001 0 0 0.99607843
0.10662572 0.35488859 1.6710001 0 0 0.99607843
0.10980858 0.35488859 1.6710001 0 0 0.99607843
0.11299143 0.35488859 1.6710001 0 0 0.99607843
0.1161743 0.35488859 1.6710001 52 0.125 0.94117647
0.15402572 0.3693305 1.7390001 291.42859 0.031390134 0.87450981
0.1573381 0.3693305 1.7390001 300 0.015686275 1
0.16065049 0.3693305 1.7390001 0 0 0.99607843
0.16396287 0.3693305 1.7390001 0 0 0.99607843
-0.064294286 0.37092859 1.7310001 340 0.040358745 0.87450981
-0.043611433 0.36342859 1.6960001 0 0 0.99607843
-0.040380955 0.36342859 1.6960001 0 0 0.99607843
-0.03715048 0.36342859 1.6960001 0 0 0.99607843
-0.0341 0.36535713 1.705 0 0 0.99607843
-0.030852381 0.36535713 1.705 0 0 0.99607843
-0.027604762 0.36535713 1.705 0 0 0.99607843
-0.024357144 0.36535713 1.705 0 0 0.99607843
-0.021109525 0.36535713 1.705 0 0 0.99215686
-0.017861906 0.36535713 1.705 60 0.0079365084 0.98823529
-0.014614286 0.36535713 1.705 60 0.0080971662 0.96862745
-0.011366667 0.36535713 1.705 30 0.058577407 0.93725491
-0.0081190476 0.36535713 1.705 30 0.064220183 0.85490197
0.096612386 0.35635716 1.6630001 0 0 0.99607843
0.099780001 0.35635716 1.6630001 0 0 0.99607843
0.10294763 0.35635716 1.6630001 0 0 0.99607843
0.10611524 0.35635716 1.6630001 0 0 0.99607843
0.10928287 0.35635716 1.6630001 0 0 0.99607843
0.11245048 0.35635716 1.6630001 0 0 0.99607843
0.1156181 0.35635716 1.6630001 0 0 0.99607843
0.15482286 0.37457144 1.748 336 0.022222223 0.88235295
0.1573381 0.37264287 1.7390001 320 0.011764706 1
0.16065049 0.37264287 1.7390001 0 0 0.99607843
-0.063960001 0.37228003 1.7220001 0 0.030701755 0.89411765
-0.043842856 0.36860475 1.705 0 0 0.99607843
-0.040595237 0.36860475 1.705 0 0 0.99607843
-0.037347618 0.36860475 1.705 0 0 0.99607843
-0.0341 0.36860475 1.705 0 0 0.99607843
-0.030852381 0.36860475 1.705 0 0 0.99607843
-0.027604762 0.36860475 1.705 0 0 0.99607843
-0.024357144 0.36860475 1.705 0 0 0.99607843
-0.021109525 0.36860475 1.705 0 0 0.99215686
-0.017861906 0.36860475 1.705 0 0 0.98431373
-0.014614286 0.36860475 1.705 0 0 0.96862745
-0.011366667 0.36860475 1.705 30 0.057142857 0.96078432
-0.0081190476 0.36860475 1.705 30 0.063636363 0.86274511
0.096612386 0.35952479 1.6630001 0 0 0.99607843
0.099780001 0.35952479 1.6630001 0 0 0.99607843
0.10294763 0.35952479 1.6630001 0 0 0.99607843
0.10611524 0.35952479 1.6630001 0 0 0.99607843
0.10928287 0.35952479 1.6630001 0 0 0.99607843
0.11245048 0.35952479 1.6630001 0 0 0.99607843
0.1156181 0.35952479 1.6630001 0 0 0.99607843
0.11878572 0.35952479 1.6630001 0 0 0.95294118
0.15482286 0.37790096 1.748 27.272728 0.046610169 0.9254902
0.15815237 0.37790096 1.748 42.857143 0.027450981 1
-0.063960001 0.37556002 1.7220001 336 0.022026431 0.89019608
-0.043842856 0.3718524 1.705 0 0 0.99607843
-0.040595237 0.3718524 1.705 0 0 0.99607843
-0.037347618 0.3718524 1.705 0 0 0.99607843
-0.0341 0.3718524 1.705 0 0 0.99607843
-0.030852381 0.3718524 1.705 0 0 0.99607843
-0.027604762 0.3718524 1.705 0 0 0.99607843
-0.024357144 0.3718524 1.705 0 0 0.99607843
-0.021109525 0.3718524 1.705 0 0 0.99607843
-0.017861906 0.3718524 1.705 0 0 0.98431373
-0.014614286 0.3718524 1.705 0 0 0.96862745
-0.011366667 0.3718524 1.705 27.272728 0.044897959 0.96078432
-0.0081190476 0.3718524 1.705 27.272728 0.050925925 0.84705883
0.083941914 0.36269242 1.6630001 0 0 0.99607843
0.087109528 0.36269242 1.6630001 0 0 0.99607843
0.09027715 0.36269242 1.6630001 0 0 0.99607843
0.093444765 0.36269242 1.6630001 0 0 0.99607843
0.096612386 0.36269242 1.6630001 0 0 0.99607843
0.099780001 0.36269242 1.6630001 0 0 0.99607843
0.10294763 0.36269242 1.6630001 0 0 0.99607843
0.10611524 0.36269242 1.6630001 0 0 0.99607843
0.10875715 0.36094764 1.6550001 0 0 0.99607843
0.11190952 0.36094764 1.6550001 0 0 0.99607843
0.11506192 0.36094764 1.6550001 0 0 0.99607843
0.11764286 0.35920289 1.6470001 0 0 0.95686275
0.12078001 0.35920289 1.6470001 22.222221 0.12 0.88235295
0.15482286 0.38123047 1.748 12 0.021186441 0.9254902
0.15815237 0.38123047 1.748 20 0.011764706 1
0.20607144 0.37752286 1.7310001 32.307693 0.11353712 0.89803922
-0.043842856 0.37510002 1.705 0 0 0.99607843
-0.040595237 0.37510002 1.705 0 0 0.99607843
-0.037347618 0.37510002 1.705 0 0 0.99607843
-0.0341 0.37510002 1.705 0 0 0.99607843
-0.030852381 0.37510002 1.705 0 0 0.99607843
-0.027604762 0.37510002 1.705 0 0 0.99607843
-0.024357144 0.37510002 1.705 0 0 0.99607843
-0.021109525 0.37510002 1.705 0 0 0.99607843
-0.017861906 0.37510002 1.705 0 0 0.98823529
-0.014614286 0.37510002 1.705 0 0 0.95294118
-0.011366667 0.37510002 1.705 28.235294 0.069958851 0.95294118
-0.0081190476 0.37510002 1.705 28.235294 0.080952384 0.82352942
0.064936198 0.36586002 1.6630001 0 0 0.99607843
0.077606671 0.36586002 1.6630001 0 0 0.99607843
0.080774285 0.36586002 1.6630001 0 0 0.99607843
0.083941914 0.36586002 1.6630001 0 0 0.99607843
0.087109528 0.36586002 1.6630001 0 0 0.99607843
0.09027715 0.36586002 1.6630001 0 0 0.99607843
0.093444765 0.36586002 1.6630001 0 0 0.99607843
0.096612386 0.36586002 1.6630001 0 0 0.99607843
0.099780001 0.36586002 1.6630001 0 0 0.99607843
0.10294763 0.36586002 1.6630001 0 0 0.99607843
0.10560477 0.36410001 1.6550001 0 0 0.99607843
0.10875715 0.36410001 1.6550001 0 0 0.99607843
0.11136857 0.36234003 1.6470001 0 0 0.99607843
0.11450572 0.36234003 1.6470001 0 0 0.99607843
0.11707143 0.36058 1.6390001 0 0 0.81960785
0.15482286 0.38455999 1.748 12 0.021186441 0.9254902
0.15815237 0.38455999 1.748 20 0.011764706 1
0.20607144 0.38082001 1.7310001 28.571428 0.092511013 0.89019608
-0.043842856 0.37834764 1.705 0 0 0.99607843
-0.040595237 0.37834764 1.705 0 0 0.99607843
-0.037347618 0.37834764 1.705 0 0 0.99607843
-0.0341 0.37834764 1.705 0 0 0.99607843
-0.030852381 0.37834764 1.705 0 0 0.99607843
-0.027604762 0.37834764 1.705 0 0 0.99607843
-0.024357144 0.37834764 1.705 0 0 0.99607843
-0.021109525 0.37834764 1.705 0 0 0.99607843
-0.017861906 0.37834764 1.705 0 0 0.98823529
-0.014614286 0.37834764 1.705 0 0 0.95294118
-0.011366667 0.37834764 1.705 24 0.062240664 0.94509804
-0.0081190476 0.37834764 1.705 24 0.07109005 0.82745099
0.067776188 0.36725241 1.6550001 0 0 0.99607843
0.070928574 0.36725241 1.6550001 0 0 0.99607843
0.074439049 0.36902764 1.6630001 0 0 0.99607843
0.077606671 0.36902764 1.6630001 0 0 0.99607843
0.080774285 0.36902764 1.6630001 0 0 0.99607843
0.083941914 0.36902764 1.6630001 0 0 0.99607843
0.087109528 0.36902764 1.6630001 0 0 0.99607843
0.09027715 0.36902764 1.6630001 0 0 0.99607843
0.092995241 0.36725241 1.6550001 0 0 0.99607843
0.096147619 0.36725241 1.6550001 0 0 0.99607843
0.099300005 0.36725241 1.6550001 0 0 0.99607843
0.10245238 0.36725241 1.6550001 0 0 0.99607843
0.10509429 0.36547714 1.6470001 0 0 0.99607843
0.10770572 0.36370191 1.6390001 0 0 0.99607843
0.11082762 0.36370191 1.6390001 0 0 0.99607843
0.11394952 0.36370191 1.6390001 0 0 0.99607843
0.20277429 0.38411716 1.7310001 40 0.025751073 0.9137255
0.20607144 0.38411716 1.7310001 30 0.089686096 0.87450981
-0.043842856 0.38159525 1.705 0 0 0.99607843
-0.040595237 0.38159525 1.705 0 0 0.99607843
-0.037347618 0.38159525 1.705 0 0 0.99607843
-0.0341 0.38159525 1.705 0 0 0.99607843
-0.030852381 0.38159525 1.705 0 0 0.99607843
-0.027604762 0.38159525 1.705 0 0 0.99607843
-0.024357144 0.38159525 1.705 0 0 0.99607843
-0.021109525 0.38159525 1.705 0 0 0.98823529
-0.017861906 0.38159525 1.705 0 0 0.98431373
-0.014614286 0.38159525 1.705 0 0 0.94509804
-0.011366667 0.38159525 1.705 5.4545455 0.046025105 0.93725491
-0.0081190476 0.38159525 1.705 5.4545455 0.051886793 0.83137256
0.06431143 0.36861429 1.6470001 0 0 0.99607843
0.067448579 0.36861429 1.6470001 0 0 0.99607843
0.074080952 0.37040478 1.6550001 0 0 0.99607843
0.077233337 0.37040478 1.6550001 0 0 0.99607843
0.0835381 0.37040478 1.6550001 0 0 0.99607843
0.086690478 0.37040478 1.6550001 0 0 0.99607843
0.089842863 0.37040478 1.6550001 0 0 0.99607843
0.092545718 0.36861429 1.6470001 0 0 0.99607843
0.0952181 0.36682382 1.6390001 0 0 0.99607843
0.098340005 0.36682382 1.6390001 0 0 0.99607843
0.10146191 0.36682382 1.6390001 0 0 0.99607843
0.10413715 0.36525714 1.6320001 0 0 0.99607843
0.10724572 0.36525714 1.6320001 240 0.0080645159 0.97254902
0.1103543 0.36525714 1.6320001 240 0.0083333338 0.94117647
0.11346287 0.36525714 1.6320001 47.5 0.099173553 0.94901961
0.20277429 0.38741428 1.7310001 40 0.026548672 0.88627452
0.20607144 0.38741428 1.7310001 30 0.088888891 0.88235295
-0.043842856 0.38484287 1.705 0 0 0.99607843
-0.040595237 0.38484287 1.705 0 0 0.99607843
-0.037347618 0.38484287 1.705 0 0 0.99607843
-0.0341 0.38484287 1.705 0 0 0.99607843
-0.030852381 0.38484287 1.705 0 0 0.99607843
-0.027604762 0.38484287 1.705 0 0 0.99607843
-0.024357144 0.38484287 1.705 0 0 0.99607843
-0.021109525 0.38484287 1.705 0 0 0.98431373
-0.017861906 0.38484287 1.705 0 0 0.98039216
-0.014614286 0.38484287 1.705 0 0 0.94509804
-0.011366667 0.38484287 1.705 18.461538 0.054852322 0.92941177
-0.0081190476 0.38484287 1.705 18.461538 0.061611373 0.82745099
0.10981334 0.36656001 1.6240001 240 0.0084033618 0.93333334
0.11346287 0.36836573 1.6320001 12 0.044843048 0.87450981
0.19046192 0.39251715 1.7390001 0 0 0.99607843
0.20277429 0.39071143 1.7310001 40 0.02631579 0.89411765
0.20607144 0.39071143 1.7310001 28.571428 0.092105262 0.89411765
-0.043842856 0.38809046 1.705 0 0 0.99607843
-0.040595237 0.38809046 1.705 0 0 0.99607843
-0.037347618 0.38809046 1.705 0 0 0.99607843
-0.0341 0.38809046 1.705 0 0 0.99607843
-0.030852381 0.38809046 1.705 0 0 0.99607843
-0.027604762 0.38809046 1.705 0 0 0.99607843
-0.024357144 0.38809046 1.705 0 0 0.99607843
-0.021109525 0.38809046 1.705 0 0 0.97647059
-0.017861906 0.38809046 1.705 330 0.0080645159 0.97254902
-0.014614286 0.38809046 1.705 330 0.0083682006 0.93725491
-0.01142 0.38991144 1.7130001 20 0.049792532 0.94509804
-0.0081571434 0.38991144 1.7130001 20 0.057692308 0.81568629
0.063725717 0.37147433 1.6320001 0 0 0.99607843
0.10619429 0.36783236 1.6160001 0 0 0.96470588
0.10927239 0.36783236 1.6160001 0 0 0.93333334
0.11235048 0.36783236 1.6160001 340 0.039823011 0.88627452
0.19046192 0.39582956 1.7390001 0 0 0.99607843
0.20277429 0.39400858 1.7310001 40 0.025974026 0.90588236
0.20607144 0.39400858 1.7310001 30 0.088105723 0.89019608
-0.054120004 0.39524001 1.7220001 0 0 0.99607843
-0.047090475 0.39133808 1.705 0 0 0.99607843
-0.043842856 0.39133808 1.705 0 0 0.99607843
-0.040595237 0.39133808 1.705 0 0 0.99607843
-0.037347618 0.39133808 1.705 0 0 0.99607843
-0.0341 0.39133808 1.705 0 0 0.99607843
-0.030852381 0.39133808 1.705 0 0 0.99607843
-0.027604762 0.39133808 1.705 0 0 0.99607843
-0.024357144 0.39133808 1.705 0 0 0.99607843
-0.021109525 0.39133808 1.705 0 0 0.98823529
-0.017861906 0.39133808 1.705 330 0.0080971662 0.96862745
-0.014682857 0.39317429 1.7130001 330 0.008163265 0.96078432
-0.01142 0.39317429 1.7130001 13.333333 0.036885247 0.95686275
-0.0081571434 0.39317429 1.7130001 13.333333 0.043689322 0.80784315
0.10266953 0.36930382 1.6090001 0 0 0.99607843
0.10573429 0.36930382 1.6090001 0 0 0.96862745
0.10927239 0.3709105 1.6160001 0 0 0.92941177
0.11235048 0.3709105 1.6160001 353.33334 0.040178571 0.87843138
0.18958572 0.39730573 1.7310001 0 0 0.99607843
0.19288287 0.39730573 1.7310001 0 0 0.99607843
0.19618002 0.39730573 1.7310001 0 0 0.97647059
0.19947715 0.39730573 1.7310001 40 0.024390243 0.96470588
0.20277429 0.39730573 1.7310001 40 0.025531914 0.92156863
0.20607144 0.39730573 1.7310001 30 0.087719299 0.89411765
-0.057400003 0.39852005 1.7220001 0 0 0.99607843
-0.054120004 0.39852005 1.7220001 0 0 0.99607843
-0.050574284 0.39643714 1.7130001 0 0 0.99607843
-0.047090475 0.3945857 1.705 0 0 0.99607843
-0.043842856 0.3945857 1.705 0 0 0.99607843
-0.040595237 0.3945857 1.705 0 0 0.99607843
-0.037347618 0.3945857 1.705 0 0 0.99607843
-0.0341 0.3945857 1.705 0 0 0.99607843
-0.030852381 0.3945857 1.705 0 0 0.99607843
-0.027604762 0.3945857 1.705 0 0 0.99607843
-0.024357144 0.3945857 1.705 0 0 0.99607843
-0.021109525 0.3945857 1.705 0 0 0.99607843
-0.017861906 0.3945857 1.705 0 0 0.99607843
-0.014682857 0.39643714 1.7130001 0 0 0.95686275
-0.01142 0.39643714 1.7130001 12 0.041152265 0.95294118
-0.0081571434 0.39643714 1.7130001 12 0.048780486 0.80392158
0.096540004 0.3723686 1.6090001 0 0 0.99607843
0.099604771 0.3723686 1.6090001 0 0 0.99607843
0.10266953 0.3723686 1.6090001 0 0 0.99607843
0.10573429 0.3723686 1.6090001 330 0.0080645159 0.97254902
0.10879906 0.3723686 1.6090001 330 0.008583691 0.9137255
0.11186381 0.3723686 1.6090001 354 0.044247787 0.88627452
0.18958572 0.40060288 1.7310001 0 0 0.99607843
0.19288287 0.40060288 1.7310001 0 0 0.99607843
0.19618002 0.40060288 1.7310001 0 0 0.97647059
0.19947715 0.40060288 1.7310001 45 0.03265306 0.96078432
0.20277429 0.40060288 1.7310001 45 0.034188036 0.91764706
0.20607144 0.40060288 1.7310001 42.352943 0.076233186 0.87450981
-0.064294286 0.4039 1.7310001 33.333336 0.038135592 0.9254902
-0.060997147 0.4039 1.7310001 42.857143 0.027450981 1
-0.057700001 0.4039 1.7310001 0 0 0.99607843
-0.054120004 0.40180001 1.7220001 0 0 0.99607843
-0.050574284 0.39970002 1.7130001 0 0 0.99607843
-0.047090475 0.39783335 1.705 0 0 0.99607843
-0.043842856 0.39783335 1.705 0 0 0.99607843
-0.040595237 0.39783335 1.705 0 0 0.99607843
-0.037347618 0.39783335 1.705 0 0 0.99607843
-0.0341 0.39783335 1.705 0 0 0.99607843
-0.030852381 0.39783335 1.705 0 0 0.99607843
-0.027604762 0.39783335 1.705 0 0 0.99607843
-0.024357144 0.39783335 1.705 0 0 0.99607843
-0.021109525 0.39783335 1.705 0 0 0.99607843
-0.017861906 0.39783335 1.705 0 0 0.99607843
-0.014682857 0.39970002 1.7130001 0 0 0.94901961
-0.01142 0.39970002 1.7130001 12 0.041493777 0.94509804
-0.0071571432 0.35070002 1.503 12 0.049019609 0.80000001
0.093010478 0.37356669 1.6010001 0 0 0.99607843
0.096060008 0.37356669 1.6010001 0 0 0.99607843
0.11186381 0.37543336 1.6090001 18.461538 0.057522126 0.88627452
0.19046192 0.4057667 1.7390001 0 0 0.99607843
0.1937743 0.4057667 1.7390001 0 0 0.99607843
0.19618002 0.4039 1.7310001 0 0 0.98039216
0.19947715 0.4039 1.7310001 40 0.024793388 0.94901961
0.20277429 0.4039 1.7310001 40 0.026086956 0.90196079
0.20607144 0.4039 1.7310001 48 0.046082951 0.8509804
-0.064294286 0.40719715 1.7310001 32.307693 0.054393306 0.93725491
-0.060997147 0.40719715 1.7310001 46.666668 0.035294119 1
-0.057700001 0.40719715 1.7310001 0 0 0.99607843
-0.054120004 0.40508005 1.7220001 0 0 0.99607843
-0.050574284 0.40296286 1.7130001 0 0 0.99607843
-0.047090475 0.40108097 1.705 0 0 0.99607843
-0.043842856 0.40108097 1.705 0 0 0.99607843
-0.040595237 0.40108097 1.705 0 0 0.99607843
-0.037347618 0.40108097 1.705 0 0 0.99607843
-0.0341 0.40108097 1.705 0 0 0.99607843
-0.030852381 0.40108097 1.705 0 0 0.99607843
-0.027604762 0.40108097 1.705 0 0 0.99607843
-0.024357144 0.40108097 1.705 0 0 0.99607843
-0.021109525 0.40108097 1.705 0 0 0.99215686
-0.017861906 0.40108097 1.705 0 0 0.98823529
-0.014682857 0.40296286 1.7130001 0 0 0.93725491
-0.01006 0.3549743 1.5090001 13.333333 0.037974682 0.92941177
0.10879906 0.37849814 1.6090001 330 0.0088105723 0.89019608
0.11186381 0.37849814 1.6090001 27.272728 0.049107142 0.87843138
0.1937743 0.40907907 1.7390001 0 0 0.99607843
0.19708668 0.40907907 1.7390001 0 0 0.97647059
0.19947715 0.40719715 1.7310001 40 0.024896266 0.94509804
0.20277429 0.40719715 1.7310001 40 0.026431719 0.89019608
0.20607144 0.40719715 1.7310001 33.333336 0.039647575 0.89019608
0.20936857 0.40719715 1.7310001 33.333336 0.039647575 0.89019608
0.21266572 0.40719715 1.7310001 44.210526 0.084444441 0.88235295
0.21596286 0.40719715 1.7310001 44.210526 0.086757988 0.85882354
0.21926001 0.40719715 1.7310001 52 0.12765957 0.92156863
-0.064591438 0.41239145 1.7390001 43.636364 0.046218488 0.93333334
-0.061279051 0.41239145 1.7390001 53.333332 0.035294119 1
-0.057700001 0.4104943 1.7310001 0 0 0.99607843
-0.054120004 0.40836 1.7220001 0 0 0.99607843
-0.050574284 0.40622574 1.7130001 0 0 0.99607843
-0.047090475 0.40432858 1.705 0 0 0.99607843
-0.043842856 0.40432858 1.705 0 0 0.99607843
-0.040595237 0.40432858 1.705 0 0 0.99607843
-0.037347618 0.40432858 1.705 0 0 0.99607843
-0.0341 0.40432858 1.705 0 0 0.99607843
-0.030852381 0.40432858 1.705 0 0 0.99607843
-0.027604762 0.40432858 1.705 0 0 0.99607843
-0.024357144 0.40432858 1.705 0 0 0.99607843
-0.021109525 0.40432858 1.705 0 0 0.99215686
-0.017945714 0.40622574 1.7130001 0 0 0.99215686
-0.014682857 0.40622574 1.7130001 0 0 0.94117647
-0.01006 0.35784858 1.5090001 342.85715 0.029411765 0.93333334
-0.0071857143 0.35784858 1.5090001 342.85715 0.034313727 0.80000001
0.10879906 0.38156289 1.6090001 0 0 0.88627452
0.11186381 0.38156289 1.6090001 32.307693 0.058035713 0.87843138
0.1937743 0.41239145 1.7390001 0 0 0.99607843
0.19708668 0.41239145 1.7390001 0 0 0.97647059
0.19947715 0.4104943 1.7310001 40 0.024590164 0.95686275
0.20277429 0.4104943 1.7310001 40 0.024691358 0.95294118
0.20607144 0.4104943 1.7310001 43.636364 0.044897959 0.96078432
0.21409144 0.37278858 1.572 0 0 0.99607843
0.21501428 0.36923143 1.557 0 0 0.99607843
0.21798001 0.36923143 1.557 0 0 0.99607843
0.21995239 0.36757144 1.5500001 0 0 0.99607843
0.22290477 0.36757144 1.5500001 0 0 0.99607843
-0.064591438 0.4157038 1.7390001 45 0.033755273 0.92941177
-0.061279051 0.4157038 1.7390001 51.428574 0.027450981 1
-0.057700001 0.41379145 1.7310001 0 0 0.99607843
-0.054402858 0.41379145 1.7310001 0 0 0.99607843
-0.050840002 0.41164005 1.7220001 0 0 0.99607843
-0.047311429 0.40948859 1.7130001 0 0 0.99607843
-0.043842856 0.4075762 1.705 0 0 0.99607843
-0.040595237 0.4075762 1.705 0 0 0.99607843
-0.037347618 0.4075762 1.705 0 0 0.99607843
-0.0341 0.4075762 1.705 0 0 0.99607843
-0.030852381 0.4075762 1.705 0 0 0.99607843
-0.027604762 0.4075762 1.705 0 0 0.99607843
-0.02447143 0.40948859 1.7130001 0 0 0.99607843
-0.021208571 0.40948859 1.7130001 0 0 0.99607843
-0.018040001 0.41164005 1.7220001 0 0 0.99607843
-0.013165714 0.36717716 1.536 0 0 0.99607843
-0.010106667 0.36239621 1.516 0 0 0.99607843
-0.0072190473 0.36239621 1.516 0 0 0.99607843
-0.004331429 0.36239621 1.516 0 0 0.99607843
-0.0014438096 0.36239621 1.516 0 0 0.90980393
0.0014438096 0.36239621 1.516 12 0.022321429 0.87843138
0.10879906 0.38462761 1.6090001 0 0 0.88627452
0.11186381 0.38462761 1.6090001 35.454544 0.096916303 0.89019608
0.11492857 0.38462761 1.6090001 35.454544 0.10138249 0.8509804
0.11799334 0.38462761 1.6090001 38.46154 0.17030568 0.89803922
0.13866381 0.44056478 1.8430001 38.46154 0.16525424 0.9254902
0.14217429 0.44056478 1.8430001 36.521736 0.19246861 0.93725491
0.14568476 0.44056478 1.8430001 36.521736 0.19166666 0.94117647
0.14838572 0.43817428 1.8330001 31.499998 0.16949153 0.9254902
0.15104859 0.43578383 1.8230001 31.499998 0.17467248 0.89803922
0.15053715 0.4245486 1.7760001 33.103447 0.13181818 0.86274511
0.15305334 0.42215812 1.766 45.714287 0.082352944 1
0.1937743 0.4157038 1.7390001 60 0.0079051387 0.99215686
0.19708668 0.4157038 1.7390001 60 0.0078740157 0.99607843
0.19947715 0.41379145 1.7310001 0 0 0.99607843
0.20277429 0.41379145 1.7310001 0 0 0.99607843
0.21204858 0.37219715 1.557 0 0 0.99607843
0.21501428 0.37219715 1.557 0 0 0.99607843
0.21798001 0.37219715 1.557 0 0 0.99607843
0.21995239 0.37052381 1.5500001 0 0 0.99607843
0.22483715 0.3688505 1.5430001 0 0 0.99607843
0.2277762 0.3688505 1.5430001 0 0 0.99607843
0.2317619 0.37052381 1.5500001 0 0 0.99607843
0.2347143 0.37052381 1.5500001 0 0 0.96470588
-0.064925715 0.42118478 1.748 48 0.021186441 0.9254902
-0.061279051 0.41901618 1.7390001 48 0.019607844 1
-0.057700001 0.4170886 1.7310001 0 0 0.99607843
-0.054402858 0.4170886 1.7310001 0 0 0.99607843
-0.050840002 0.41492 1.7220001 0 0 0.99607843
-0.047311429 0.41275144 1.7130001 0 0 0.99607843
-0.044048574 0.41275144 1.7130001 0 0 0.99607843
-0.040595237 0.41082382 1.705 0 0 0.99607843
-0.037347618 0.41082382 1.705 0 0 0.99607843
-0.0341 0.41082382 1.705 0 0 0.99607843
-0.02486857 0.37010285 1.536 0 0 0.99607843
-0.021942858 0.37010285 1.536 0 0 0.99607843
-0.013165714 0.37010285 1.536 0 0 0.99607843
-0.010153335 0.36697051 1.5230001 0 0 0.99607843
-0.0072190473 0.36528382 1.516 0 0 0.99607843
-0.004331429 0.36528382 1.516 0 0 0.99607843
-0.0014504762 0.36697051 1.5230001 0 0 0.99607843
0.0014628571 0.37010285 1.536 0 0 0.99607843
0.0043885713 0.37010285 1.536 0 0 0.99607843
0.10573429 0.38769239 1.6090001 40 0.012048192 0.97647059
0.10879906 0.38769239 1.6090001 40 0.013513514 0.87058824
0.11186381 0.38769239 1.6090001 24.545454 0.097777776 0.88235295
0.11435714 0.38576478 1.6010001 24.545454 0.09565217 0.90196079
0.11740667 0.38576478 1.6010001 30.81081 0.15416667 0.94117647
0.13715905 0.43925622 1.8230001 30.81081 0.14741036 0.98431373
0.14063144 0.43925622 1.8230001 35.121948 0.164 0.98039216
0.14489429 0.44166574 1.8330001 35.121948 0.16334662 0.98431373
0.14676668 0.43684667 1.8130001 26.666666 0.14574899 0.96862745
0.14864571 0.43226859 1.794 26.666666 0.14876033 0.94901961
0.15053715 0.42793146 1.7760001 34.285717 0.15555556 0.88235295
0.1937743 0.41901618 1.7390001 72 0.039525691 0.99215686
0.19708668 0.41901618 1.7390001 66.666672 0.035294119 1
0.19947715 0.4170886 1.7310001 0 0 0.99607843
0.20277429 0.4170886 1.7310001 0 0 0.99607843
0.20908286 0.37516287 1.557 0 0 0.99607843
0.21204858 0.37516287 1.557 0 0 0.99607843
0.21404763 0.37347621 1.5500001 0 0 0.99607843
0.21700001 0.37347621 1.5500001 0 0 0.99607843
0.22189811 0.37178954 1.5430001 0 0 0.99607843
0.22483715 0.37178954 1.5430001 0 0 0.99607843
0.2277762 0.37178954 1.5430001 0 0 0.99607843
0.23071526 0.37178954 1.5430001 0 0 0.99607843
0.23365431 0.37178954 1.5430001 0 0 0.99607843
0.23659335 0.37178954 1.5430001 340 0.012295082 0.95686275
0.2395324 0.37178954 1.5430001 340 0.01369863 0.85882354
-0.065260001 0.42670003 1.7570001 40 0.012295082 0.95686275
-0.061279051 0.42232856 1.7390001 40 0.011764706 1
-0.057700001 0.42038575 1.7310001 0 0 0.99607843
-0.054402858 0.42038575 1.7310001 0 0 0.99607843
-0.050840002 0.41820005 1.7220001 0 0 0.99607843
-0.047311429 0.41601428 1.7130001 0 0 0.99607843
-0.044048574 0.41601428 1.7130001 0 0 0.99607843
-0.040785715 0.41601428 1.7130001 0 0 0.99607843
-0.037347618 0.41407144 1.705 0 0 0.99607843
-0.02486857 0.37302855 1.536 0 0 0.99607843
-0.0043685711 0.37132859 1.529 0 0 0.99607843
-0.0014561905 0.37132859 1.529 0 0 0.99607843
0.0014628571 0.37302855 1.536 0 0 0.99607843
0.0043885713 0.37302855 1.536 0 0 0.99607843
0.10879906 0.39075714 1.6090001 48 0.02293578 0.85490197
0.11186381 0.39075714 1.6090001 22.105263 0.084444441 0.88235295
0.13715905 0.44272858 1.8230001 28.125 0.12955466 0.96862745
0.13986 0.44030002 1.8130001 37.333336 0.18292683 0.96470588
0.14260191 0.43811432 1.8040001 37.333336 0.18000001 0.98039216
0.14522858 0.43568572 1.794 28.125 0.13114753 0.95686275
0.14864571 0.43568572 1.794 28.125 0.1322314 0.94901961
0.15053715 0.43131432 1.7760001 32.307693 0.11111111 0.91764706
0.1937743 0.42232856 1.7390001 46.153847 0.053497944 0.95294118
0.19708668 0.42232856 1.7390001 54.545456 0.043137256 1
0.19947715 0.42038575 1.7310001 0 0 0.99607843
0.20277429 0.42038575 1.7310001 0 0 0.98823529
0.20908286 0.37812856 1.557 0 0 0.99607843
0.21204858 0.37812856 1.557 0 0 0.99607843
0.21404763 0.3764286 1.5500001 0 0 0.99607843
0.21700001 0.3764286 1.5500001 0 0 0.99607843
0.22189811 0.37472859 1.5430001 0 0 0.99607843
0.22483715 0.37472859 1.5430001 0 0 0.99607843
0.2277762 0.37472859 1.5430001 0 0 0.99607843
0.23071526 0.37472859 1.5430001 0 0 0.99607843
0.23365431 0.37472859 1.5430001 0 0 0.99607843
0.23659335 0.37472859 1.5430001 0 0 0.99607843
0.2395324 0.37472859 1.5430001 0 0 0.88627452
-0.061279051 0.42564097 1.7390001 40 0.011764706 1
-0.057966668 0.42564097 1.7390001 0 0 0.99607843
-0.054402858 0.42368287 1.7310001 0 0 0.99607843
-0.050840002 0.42148 1.7220001 0 0 0.99607843
-0.047560003 0.42148 1.7220001 0 0 0.99607843
-0.044280004 0.42148 1.7220001 0 0 0.99607843
-0.040785715 0.41927716 1.7130001 0 0 0.98039216
0.10879906 0.39382192 1.6090001 40 0.027149322 0.86666667
0.11186381 0.39382192 1.6090001 30 0.10572688 0.89019608
0.11435714 0.39186382 1.6010001 30 0.10526316 0.89411765
0.11740667 0.39186382 1.6010001 28.421053 0.15899582 0.93725491
0.13640667 0.44375333 1.8130001 28.421053 0.15447155 0.96470588
0.13916571 0.44155049 1.8040001 33.333336 0.18442623 0.95686275
0.14181143 0.43910286 1.794 33.333336 0.18292683 0.96470588
0.1445 0.43690002 1.7850001 30.81081 0.15163934 0.95686275
0.14790002 0.43690002 1.7850001 30.81081 0.15226337 0.95294118
0.15053715 0.43469718 1.7760001 31.304348 0.097872339 0.92156863
0.15392001 0.43469718 1.7760001 45 0.062745102 1
0.19046192 0.42564097 1.7390001 0 0 0.91764706
0.1937743 0.42564097 1.7390001 44.57143 0.1502146 0.9137255
0.19708668 0.42564097 1.7390001 44.57143 0.14227642 0.96470588
0.20039906 0.42564097 1.7390001 0 0 0.99607843
0.20704381 0.38280764 1.5640001 0 0 0.99607843
0.21002287 0.38280764 1.5640001 0 0 0.99607843
0.21204858 0.38109431 1.557 0 0 0.99607843
0.21501428 0.38109431 1.557 0 0 0.99607843
0.21700001 0.37938094 1.5500001 0 0 0.99607843
0.21995239 0.37938094 1.5500001 0 0 0.99607843
0.22483715 0.37766764 1.5430001 0 0 0.99607843
0.2277762 0.37766764 1.5430001 0 0 0.99607843
0.23071526 0.37766764 1.5430001 0 0 0.99607843
0.23365431 0.37766764 1.5430001 0 0 0.99607843
0.23552001 0.3759543 1.536 0 0 0.99607843
0.23844571 0.3759543 1.536 0 0 0.87843138
-0.061279051 0.42895335 1.7390001 48 0.019607844 1
-0.057966668 0.42895335 1.7390001 0 0 0.99607843
-0.054402858 0.42698002 1.7310001 0 0 0.99607843
-0.051105715 0.42698002 1.7310001 0 0 0.99607843
-0.047808573 0.42698002 1.7310001 0 0 0.99607843
-0.04451143 0.42698002 1.7310001 60 0.0079051387 0.99215686
-0.041214287 0.42698002 1.7310001 60 0.0080321282 0.97647059
-0.033645712 0.37887999 1.536 0 0 0.97254902
-0.030720001 0.37887999 1.536 0 0 0.99607843
0.10879906 0.39688668 1.6090001 40 0.025641026 0.91764706
0.11186381 0.39688668 1.6090001 22.5 0.070484579 0.89019608
0.11492857 0.39688668 1.6090001 22.5 0.070484579 0.89019608
0.11799334 0.39688668 1.6090001 34.736843 0.15833333 0.94117647
0.13497713 0.44251999 1.794 34.736843 0.15322581 0.97254902
0.13770001 0.44030002 1.7850001 34.285717 0.11522634 0.95294118
0.14110002 0.44030002 1.7850001 34.285717 0.11570248 0.94901961
0.1445 0.44030002 1.7850001 38 0.12244898 0.96078432
0.14715429 0.43808004 1.7760001 38 0.12145749 0.96862745
0.15053715 0.43808004 1.7760001 27.272728 0.045267489 0.95294118
0.15392001 0.43808004 1.7760001 42.857143 0.027450981 1
0.19046192 0.42895335 1.7390001 60 0.008547009 0.91764706
0.1937743 0.42895335 1.7390001 34.736843 0.084444441 0.88235295
0.19708668 0.42895335 1.7390001 34.736843 0.083333336 0.89411765
0.18075144 0.38060668 1.5430001 60 0.0078740157 0.99607843
0.18369049 0.38060668 1.5430001 0 0 0.99607843
0.19722001 0.38406 1.557 0 0 0.99607843
0.20018572 0.38406 1.557 0 0 0.99607843
0.20406479 0.38578668 1.5640001 0 0 0.99607843
0.20704381 0.38578668 1.5640001 0 0 0.99607843
0.21002287 0.38578668 1.5640001 0 0 0.99607843
0.21204858 0.38406 1.557 0 0 0.99607843
0.21501428 0.38406 1.557 0 0 0.99607843
0.21700001 0.38233334 1.5500001 0 0 0.99607843
0.21995239 0.38233334 1.5500001 0 0 0.99607843
0.22189811 0.38060668 1.5430001 0 0 0.99607843
0.22483715 0.38060668 1.5430001 0 0 0.99607843
0.2277762 0.38060668 1.5430001 0 0 0.99607843
0.23071526 0.38060668 1.5430001 0 0 0.99607843
0.23365431 0.38060668 1.5430001 0 0 0.99607843
0.23552001 0.37887999 1.536 0 0 0.99607843
0.23735905 0.37715334 1.529 0 0 0.8392157
-0.057966668 0.43226573 1.7390001 0 0 0.99607843
-0.054654285 0.43226573 1.7390001 0 0 0.99607843
-0.05134191 0.43226573 1.7390001 0 0 0.99215686
-0.048029527 0.43226573 1.7390001 0 0 0.99607843
-0.038982857 0.37683427 1.516 0 0 0.99607843
-0.036095239 0.37683427 1.516 0 0 0.98039216
-0.033360954 0.37857431 1.5230001 0 0 0.97647059
-0.030580001 0.38006571 1.529 0 0 0.99607843
-0.027794285 0.38180572 1.536 0 0 0.99607843
-0.02486857 0.38180572 1.536 0 0 0.99607843
0.11186381 0.39995146 1.6090001 30 0.10572688 0.89019608
0.11492857 0.39995146 1.6090001 30 0.1048035 0.89803922
0.11799334 0.39995146 1.6090001 34.285717 0.14403293 0.95294118
0.13497713 0.44593716 1.794 34.285717 0.1388889 0.98823529
0.13770001 0.44370002 1.7850001 37.14286 0.085714288 0.96078432
0.14110002 0.44370002 1.7850001 37.14286 0.086065575 0.95686275
0.1445 0.44370002 1.7850001 41.739132 0.093877554 0.96078432
0.14715429 0.4414629 1.7760001 41.739132 0.093877554 0.96078432
0.15053715 0.4414629 1.7760001 40 0.06198347 0.94901961
0.18958572 0.43027714 1.7310001 330 0.008547009 0.91764706
0.19288287 0.43027714 1.7310001 38 0.13574661 0.86666667
0.19618002 0.43027714 1.7310001 38 0.12875536 0.9137255
0.17700571 0.38180572 1.536 40 0.012145749 0.96862745
0.17993143 0.38180572 1.536 40 0.011764706 1
0.18285714 0.38180572 1.536 0 0 0.99607843
0.18662953 0.38354573 1.5430001 0 0 0.99607843
0.19042858 0.38528574 1.5500001 0 0 0.99607843
0.19425429 0.38702571 1.557 0 0 0.99607843
0.19722001 0.38702571 1.557 0 0 0.99607843
0.20018572 0.38702571 1.557 0 0 0.99607843
0.20315143 0.38702571 1.557 0 0 0.99607843
0.20704381 0.38876575 1.5640001 0 0 0.99607843
0.20908286 0.38702571 1.557 0 0 0.99607843
0.21109524 0.38528574 1.5500001 0 0 0.99607843
0.21404763 0.38528574 1.5500001 0 0 0.99607843
0.21700001 0.38528574 1.5500001 0 0 0.99607843
0.21895906 0.38354573 1.5430001 0 0 0.99607843
0.22089143 0.38180572 1.536 0 0 0.99607843
0.22381714 0.38180572 1.536 0 0 0.99607843
0.22674286 0.38180572 1.536 0 0 0.99607843
0.22966857 0.38180572 1.536 0 0 0.99607843
0.23259428 0.38180572 1.536 0 0 0.99607843
0.23444667 0.38006571 1.529 72 0.019607844 1
0.23642763 0.37857431 1.5230001 72 0.024390243 0.80392158
-0.054937143 0.43783239 1.748 0 0 0.94901961
-0.05134191 0.43557811 1.7390001 48 0.020920502 0.93725491
-0.041677143 0.37796858 1.5090001 48 0.019607844 1
-0.038802858 0.37796858 1.5090001 0 0 0.99607843
-0.036095239 0.37972191 1.516 0 0 0.99607843
-0.033207618 0.37972191 1.516 0 0 0.99607843
-0.030460002 0.38147527 1.5230001 0 0 0.99607843
-0.027667619 0.38297811 1.529 0 0 0.99607843
-0.02486857 0.38473144 1.536 0 0 0.99607843
-0.021942858 0.38473144 1.536 0 0 0.99607843
-0.019103812 0.38648477 1.5430001 0 0 0.99607843
-0.016164763 0.38648477 1.5430001 0 0 0.99607843
0.11492857 0.40301621 1.6090001 30 0.10169491 0.9254902
0.11799334 0.40301621 1.6090001 38 0.12244898 0.96078432
0.13429999 0.44710001 1.7850001 38 0.11811024 0.99607843
0.14038858 0.44484574 1.7760001 42.352943 0.069387756 0.96078432
0.14377144 0.44484574 1.7760001 52 0.060975611 0.96470588
0.14715429 0.44484574 1.7760001 52 0.05882353 1
0.18714952 0.43557811 1.7390001 0 0 0.98039216
0.18958572 0.43357429 1.7310001 0 0 0.91764706
0.19288287 0.43357429 1.7310001 20 0.05479452 0.85882354
0.19618002 0.43357429 1.7310001 20 0.052173913 0.90196079
0.17911142 0.38297811 1.529 40 0.011764706 1
0.18202381 0.38297811 1.529 0 0 0.99607843
0.18578286 0.38473144 1.536 0 0 0.99607843
0.18956858 0.38648477 1.5430001 0 0 0.99607843
0.19338095 0.3882381 1.5500001 0 0 0.99607843
0.19633333 0.3882381 1.5500001 0 0 0.99607843
0.19928573 0.3882381 1.5500001 0 0 0.99607843
0.20315143 0.38999143 1.557 0 0 0.99607843
0.20611714 0.38999143 1.557 0 0 0.99607843
0.20814286 0.3882381 1.5500001 0 0 0.99607843
0.21014191 0.38648477 1.5430001 0 0 0.99607843
0.21308097 0.38648477 1.5430001 0 0 0.99607843
0.21602002 0.38648477 1.5430001 0 0 0.99607843
0.21796571 0.38473144 1.536 0 0 0.99607843
0.22279716 0.38297811 1.529 0 0 0.99607843
0.22570953 0.38297811 1.529 0 0 0.99607843
0.22862191 0.38297811 1.529 340 0.012195121 0.96470588
0.23153429 0.38297811 1.529 340 0.014150944 0.83137256
-0.054654285 0.43889049 1.7390001 0 0 0.93725491
-0.044551432 0.38084286 1.5090001 42 0.084745765 0.9254902
-0.041677143 0.38084286 1.5090001 56 0.05882353 1
-0.038802858 0.38084286 1.5090001 0 0 0.99607843
-0.035928573 0.38084286 1.5090001 0 0 0.99607843
-0.032922857 0.37932858 1.503 0 0 0.99607843
-0.030059999 0.37932858 1.503 0 0 0.99607843
-0.027305715 0.38084286 1.5090001 0 0 0.99607843
-0.024544762 0.38260955 1.516 0 0 0.99607843
-0.021757144 0.38437623 1.5230001 0 0 0.99607843
-0.019017143 0.38765714 1.536 0 0 0.99607843
-0.016164763 0.38942382 1.5430001 0 0 0.99607843
-0.013225715 0.38942382 1.5430001 0 0 0.99607843
-0.010286667 0.38942382 1.5430001 0 0 0.99607843
-0.0073476196 0.38942382 1.5430001 0 0 0.99607843
-0.0044085714 0.38942382 1.5430001 0 0 0.99607843
-0.0014695239 0.38942382 1.5430001 0 0 0.99607843
0.0014695239 0.38942382 1.5430001 0 0 0.99607843
0.0044085714 0.38942382 1.5430001 0 0 0.99607843
0.0073142857 0.38765714 1.536 0 0 0.99607843
0.01024 0.38765714 1.536 0 0 0.99607843
0.057508573 0.41188571 1.6320001 0 0 0.99607843
0.060617145 0.41188571 1.6320001 0 0 0.99607843
0.14377144 0.4482286 1.7760001 46.153847 0.052631579 0.96862745
0.14715429 0.4482286 1.7760001 46.153847 0.051383398 0.99215686
0.18714952 0.43889049 1.7390001 0 0 0.98431373
0.18958572 0.43687144 1.7310001 0 0 0.92156863
0.19288287 0.43687144 1.7310001 36 0.11261261 0.87058824
0.19618002 0.43687144 1.7310001 36 0.10822511 0.90588236
0.17911142 0.38589048 1.529 330 0.0078431377 1
0.18202381 0.38589048 1.529 0 0 0.99607843
0.18493618 0.38589048 1.529 0 0 0.99607843
0.18784858 0.38589048 1.529 0 0 0.99607843
0.19076096 0.38589048 1.529 0 0 0.99607843
0.19455999 0.38765714 1.536 0 0 0.99607843
0.19748572 0.38765714 1.536 0 0 0.99607843
0.20823523 0.38589048 1.529 0 0 0.99607843
-0.050766669 0.38727716 1.5230001 0 0 0.99607843
-0.047645714 0.38549715 1.516 0 0 0.94117647
-0.044551432 0.38371715 1.5090001 15 0.016949153 0.9254902
-0.041677143 0.38371715 1.5090001 20 0.011764706 1
-0.038802858 0.38371715 1.5090001 0 0 0.99607843
-0.035928573 0.38371715 1.5090001 0 0 0.99607843
-0.032922857 0.38219142 1.503 0 0 0.99607843
-0.030059999 0.38219142 1.503 0 0 0.99607843
-0.027197143 0.38219142 1.503 0 0 0.99607843
-0.024334285 0.38219142 1.503 0 0 0.99607843
-0.021471428 0.38219142 1.503 0 0 0.99607843
-0.018682858 0.38371715 1.5090001 0 0 0.99607843
-0.016018094 0.38880286 1.529 0 0 0.99607843
-0.013165714 0.39058286 1.536 0 0 0.99607843
-0.010286667 0.39236286 1.5430001 0 0 0.99607843
-0.0073476196 0.39236286 1.5430001 0 0 0.99607843
-0.0044085714 0.39236286 1.5430001 0 0 0.99607843
-0.0014695239 0.39236286 1.5430001 0 0 0.99607843
0.0014695239 0.39236286 1.5430001 0 0 0.99607843
0.0043885713 0.39058286 1.536 0 0 0.99607843
0.0073142857 0.39058286 1.536 0 0 0.99607843
0.01024 0.39058286 1.536 0 0 0.97647059
0.013105715 0.38880286 1.529 25.714287 0.029166667 0.94117647
0.015881905 0.38549715 1.516 25.714287 0.033816423 0.81176472
0.01860857 0.38219142 1.503 21.428572 0.12444445 0.88235295
0.021471428 0.38219142 1.503 21.428572 0.11666667 0.94117647
0.057508573 0.4149943 1.6320001 0 0 0.99607843
0.060617145 0.4149943 1.6320001 0 0 0.99607843
0.14377144 0.45161146 1.7760001 43.636364 0.044354837 0.97254902
0.18714952 0.44220287 1.7390001 0 0 0.98039216
0.18958572 0.44016859 1.7310001 0 0 0.91764706
0.19288287 0.44016859 1.7310001 30 0.063636363 0.86274511
0.19618002 0.44016859 1.7310001 30 0.062222224 0.88235295
0.18202381 0.38880286 1.529 0 0 0.99607843
0.18493618 0.38880286 1.529 0 0 0.99607843
0.18784858 0.38880286 1.529 0 0 0.99607843
0.19076096 0.38880286 1.529 0 0 0.99607843
0.19367334 0.38880286 1.529 0 0 0.99607843
0.19658571 0.38880286 1.529 0 0 0.99607843
0.19871525 0.38727716 1.5230001 0 0 0.99607843
0.20161621 0.38727716 1.5230001 0 0 0.99607843
0.20357715 0.38549715 1.516 0 0 0.99607843
0.21988288 0.38371715 1.5090001 48 0.020661157 0.94901961
0.22275715 0.38371715 1.5090001 48 0.022123894 0.88627452
0.22563143 0.38371715 1.5090001 30 0.061946902 0.88627452
0.23534095 0.38549715 1.516 31.499998 0.19607843 0.80000001
-0.050766669 0.39017814 1.5230001 0 0 0.99607843
-0.047645714 0.38838476 1.516 0 0 0.92941177
-0.044551432 0.38659143 1.5090001 40 0.063829787 0.92156863
-0.041677143 0.38659143 1.5090001 54.545456 0.043137256 1
-0.038648572 0.38505429 1.503 0 0 0.99607843
-0.035785716 0.38505429 1.503 0 0 0.99607843
-0.032769524 0.38326097 1.4960001 0 0 0.99607843
-0.029920001 0.38326097 1.4960001 0 0 0.99607843
-0.027070478 0.38326097 1.4960001 0 0 0.99607843
-0.024220953 0.38326097 1.4960001 0 0 0.99607843
-0.021371428 0.38326097 1.4960001 0 0 0.99607843
-0.018521905 0.38326097 1.4960001 0 0 0.99607843
-0.015672382 0.38326097 1.4960001 0 0 0.99607843
-0.012822858 0.38326097 1.4960001 0 0 0.99607843
-0.01024 0.39350855 1.536 0 0 0.99607843
-0.0073142857 0.39350855 1.536 0 0 0.99607843
-0.0043885713 0.39350855 1.536 0 0 0.99607843
-0.0014628571 0.39350855 1.536 0 0 0.99607843
0.0014628571 0.39350855 1.536 0 0 0.99607843
0.0043885713 0.39350855 1.536 0 0 0.99607843
0.0072809528 0.39171526 1.529 0 0 0.99607843
0.010193333 0.39171526 1.529 0 0 0.9254902
0.013105715 0.39171526 1.529 20 0.051282052 0.91764706
0.015881905 0.38838476 1.516 20 0.055299539 0.8509804
0.057755239 0.41989622 1.6390001 0 0 0.99607843
0.18714952 0.44551525 1.7390001 40 0.012605042 0.93333334
0.18958572 0.44346571 1.7310001 40 0.012987013 0.90588236
0.19288287 0.44346571 1.7310001 49.565216 0.10697675 0.84313726
0.19618002 0.44346571 1.7310001 49.565216 0.10267857 0.87843138
0.1958143 0.39017814 1.5230001 0 0 0.99607843
0.21700858 0.38659143 1.5090001 0 0 0.95686275
0.21988288 0.38659143 1.5090001 33.333336 0.036885247 0.95686275
0.22275715 0.38659143 1.5090001 33.333336 0.039647575 0.89019608
0.22563143 0.38659143 1.5090001 20 0.055299539 0.8509804
-0.047645714 0.39127237 1.516 40 0.012931035 0.90980393
-0.044374287 0.38791716 1.503 44.210526 0.081896551 0.90980393
-0.041511431 0.38791716 1.503 56 0.05882353 1
-0.038468573 0.38611048 1.4960001 0 0 0.99607843
-0.03561905 0.38611048 1.4960001 0 0 0.99607843
-0.032769524 0.38611048 1.4960001 0 0 0.99607843
-0.029920001 0.38611048 1.4960001 0 0 0.99607843
-0.027070478 0.38611048 1.4960001 0 0 0.99607843
-0.024220953 0.38611048 1.4960001 0 0 0.99607843
-0.021371428 0.38611048 1.4960001 0 0 0.99607843
-0.018435238 0.38430381 1.4890001 0 0 0.99607843
-0.015599049 0.38430381 1.4890001 0 0 0.99607843
-0.012822858 0.38611048 1.4960001 0 0 0.99607843
-0.0099733332 0.38611048 1.4960001 0 0 0.99607843
-0.0071238098 0.38611048 1.4960001 0 0 0.99607843
